# .PCD v0.7 - Point Cloud Data file format
VERSION 0.7
FIELDS x y z
SIZE 4 4 4
TYPE F F F
COUNT 1 1 1
WIDTH 341
HEIGHT 1
VIEWPOINT 0 0 0 1 0 0 0
POINTS 341
DATA ascii
0.14348781 0.0010078161 0.47900003
0.20864809 0.045025706 0.47887504
0.2103816 0.045351721 0.47900003
0.19380251 0.051596656 0.47850001
0.11043984 0.10036168 0.47900003
0.13276377 0.0023847478 0.48002195
0.14471634 0.0021048768 0.48033336
0.067923822 0.036669251 0.48840931
0.075308539 0.03562535 0.48674774
0.13516793 0.035133719 0.48422435
0.14493831 0.035628464 0.48401728
0.069284461 0.041519683 0.48828575
0.075493522 0.044586267 0.48837483
0.084719159 0.04492826 0.48807538
0.094953507 0.04491144 0.48789364
0.10512069 0.045122202 0.48699266
0.11499953 0.045150276 0.48585427
0.12503913 0.045083154 0.48513925
0.13521592 0.045072269 0.48502821
0.14519072 0.045002557 0.48426437
0.15529622 0.044976518 0.48400047
0.16525131 0.044859558 0.48392802
0.17509496 0.044992067 0.48304713
0.18515962 0.044810612 0.48221514
0.19483677 0.04485134 0.48135692
0.20456734 0.04584226 0.48078617
0.21082957 0.048653685 0.48050004
0.076292165 0.051257517 0.48824152
0.08474192 0.05115423 0.48814642
0.10531495 0.052215606 0.48735729
0.11509829 0.052583821 0.48652375
0.18322946 0.05060032 0.48233339
0.19658248 0.050756525 0.48223528
0.20319863 0.050865512 0.48349994
0.21083835 0.050179526 0.48100004
0.087272815 0.075085156 0.48898056
0.095069617 0.075947747 0.48891306
0.10218614 0.077076107 0.48880011
0.077434212 0.087701738 0.48800004
0.08801131 0.084890932 0.48840913
0.095488891 0.084324799 0.48887041
0.10447626 0.084491432 0.4876934
0.066891417 0.095863499 0.48600003
0.086876936 0.098132625 0.48795
0.095421366 0.09816201 0.48779553
0.10337942 0.099009179 0.48717645
0.11012249 0.099918082 0.48500001
0.086230092 0.10460664 0.48878559
0.095143668 0.10511809 0.48726153
0.10515791 0.10501284 0.48504493
0.095702648 0.11146566 0.48635718
0.10501014 0.11173315 0.48387504
0.066582836 0.039949697 0.49000001
-0.042348262 0.043221422 0.49800003
-0.038777597 0.042263221 0.49700001
-0.022572745 0.046947278 0.49833331
-0.015608984 0.046559922 0.49753174
-0.0091865901 0.049432602 0.49900001
0.067441963 0.041095208 0.49000001
-0.033426661 0.053856824 0.49872732
-0.023770373 0.051471945 0.49862495
-0.015282544 0.052017175 0.49706772
-0.008749133 0.050307516 0.49900001
-0.013619619 0.077171437 0.4984425
0.083352447 0.077057645 0.4899998
0.094075091 0.072596759 0.48999998
-0.021775961 0.086160846 0.49516666
-0.014306149 0.084007889 0.49878043
-0.0044841422 0.084601179 0.4975282
0.0047461591 0.084723003 0.4969309
0.065406226 0.084333539 0.49126706
0.074714445 0.084433481 0.49081188
0.084742226 0.084324539 0.49050042
0.092195734 0.088061169 0.48999989
-0.032273166 0.095515028 0.4975
-0.024607712 0.094165631 0.49709094
-0.013118659 0.09684822 0.49875003
-0.0059126155 0.096720755 0.49728569
0.0039134398 0.090009123 0.49600002
0.068344295 0.097241245 0.49090481
0.073585995 0.097605206 0.4900696
0.085994065 0.094959885 0.49084216
0.092570081 0.092569813 0.49044997
-0.045058038 0.10367723 0.49900001
-0.023039829 0.10696605 0.4980191
-0.015413601 0.10784667 0.49820364
-0.0053410348 0.10574237 0.49869549
0.0046702628 0.10362115 0.4981111
0.014834804 0.10607276 0.49653611
0.024216767 0.1060702 0.49448133
0.035592917 0.10498551 0.49314287
0.044819623 0.10466558 0.49361756
0.056185666 0.10503918 0.49281582
0.065749004 0.10300142 0.49190733
0.075060882 0.10460068 0.49040353
0.082575411 0.10536887 0.49005643
-0.023414187 0.11235821 0.49869442
-0.014219194 0.11402699 0.4980965
-0.0066742445 0.11518656 0.49834493
0.016155947 0.11364716 0.49657977
0.022737306 0.11436511 0.49646571
0.055093881 0.11360871 0.49465853
0.084786654 0.11303961 0.49106658
0.09061332 0.11212952 0.49079999
0.15885551 -0.094153114 0.50899994
0.16496058 -0.094266526 0.50814748
0.15912324 -0.087549016 0.509
0.16488923 -0.085118786 0.50834823
0.17501548 -0.085058384 0.50798309
0.20499644 -0.085084021 0.50424659
0.21501462 -0.085126206 0.5027687
0.16597643 -0.076025009 0.50882596
0.17469122 -0.075000271 0.50837022
0.21500722 -0.075052224 0.50360614
0.1678437 -0.064617395 0.50900012
0.17486684 -0.064872779 0.5085144
0.16684696 -0.056237664 0.50899988
0.17487557 -0.054976419 0.5085544
0.18481876 -0.054777663 0.5079996
0.15809807 -0.044089317 0.50800002
0.1776813 -0.047239374 0.509
0.18499561 -0.045008663 0.50825167
0.21469653 -0.044772632 0.50521404
0.16723607 -0.031495128 0.50600004
0.17828482 -0.035121489 0.50900018
0.1851735 -0.035249706 0.50897479
0.19525442 -0.035216976 0.50850737
0.20512356 -0.035108235 0.50713593
0.21475536 -0.035041649 0.50578153
0.17893554 -0.029004514 0.50899994
0.18480752 -0.02763371 0.50895029
0.19483955 -0.027723959 0.50838232
0.20512523 -0.027698804 0.50766665
-0.1704573 -0.011155583 0.509
-0.16414635 -0.01378677 0.50883323
-0.15517232 -0.014338283 0.50803477
-0.11865249 -0.013803576 0.50463152
-0.18786001 -0.0058009033 0.509
-0.17162547 -0.0066894046 0.50849998
-0.16323601 -0.0073168185 0.50868183
-0.15517804 -0.0071502649 0.50840306
-0.14455158 -0.0085441759 0.50744832
-0.13480254 -0.0082199788 0.50565737
-0.12489075 -0.0073898779 0.50399983
-0.11848105 -0.0074854377 0.50486952
-0.1320549 0.036838084 0.50684208
-0.12491792 0.037736088 0.507649
-0.11516726 0.037127942 0.5077306
-0.10495895 0.037888091 0.50799984
-0.094704464 0.038418852 0.50678951
-0.089116238 0.038891125 0.50700003
-0.13104092 0.04328366 0.509
-0.12454404 0.043617897 0.50873744
-0.11487304 0.043582648 0.50872266
-0.10448676 0.044604283 0.50802666
-0.094644159 0.044878371 0.50684303
-0.084890164 0.044984423 0.50633359
-0.045245666 0.04665269 0.50070226
-0.035236996 0.046824709 0.50048262
-0.027356485 0.046843573 0.50016665
-0.014948482 0.042645887 0.50150001
-0.044834651 0.05224207 0.50092447
-0.035668071 0.05208246 0.50036532
-0.028079897 0.051864039 0.50050002
-0.024774166 0.077362366 0.50058061
-0.019023664 0.076883659 0.5
-0.044979688 0.085145809 0.50341994
-0.034629855 0.084930353 0.50120932
-0.025589325 0.084399559 0.50036097
-0.018810214 0.084407732 0.5
0.005698333 0.089858331 0.5
-0.052361283 0.098891109 0.5058462
-0.044849202 0.095713854 0.50541604
-0.036106396 0.097845741 0.50455177
-0.025480509 0.096880928 0.50137842
-0.013724655 0.098761939 0.50292861
-0.0056365454 0.098434009 0.50064003
-0.054513168 0.10569502 0.5045557
-0.044489052 0.10509962 0.5045445
-0.035525352 0.10413411 0.50401032
-0.025957536 0.10196411 0.50223535
-0.012217566 0.10324384 0.50253659
-0.0055381837 0.1027557 0.50037736
0.0083704134 0.10443904 0.50266665
0.012737091 0.10321435 0.50100005
-0.055773955 0.11330622 0.50542116
-0.044822723 0.11481526 0.50382423
-0.035081197 0.11504509 0.50349218
-0.02642443 0.11525704 0.50015789
-0.01807029 0.11701808 0.50030005
0.013600169 0.112326 0.50050002
-0.034775879 0.1207976 0.50265223
-0.029060403 0.12064402 0.50225002
0.026501423 -0.092181355 0.5188334
0.034558062 -0.091864616 0.51824433
0.15772508 -0.093249127 0.51072735
0.019564571 -0.083263181 0.51900005
0.024992233 -0.085050948 0.51900071
0.034996238 -0.084996052 0.5184716
0.044353545 -0.084838346 0.51793426
0.15848452 -0.084489375 0.51022869
0.026714414 -0.076113336 0.51900005
0.035340928 -0.074883305 0.51863456
0.044740058 -0.074780226 0.51778477
0.15916774 -0.075481445 0.5108847
0.1624117 -0.073114835 0.51055562
0.028632985 -0.064624265 0.51900005
0.035135273 -0.065157622 0.51888961
0.044910919 -0.064880989 0.51753742
0.15920942 -0.064464204 0.51146156
0.16328266 -0.065026268 0.51042676
0.029574355 -0.058693711 0.51900005
0.036487833 -0.055479236 0.51900059
0.044782277 -0.054974232 0.51827645
0.15952435 -0.054106634 0.51105893
0.16419454 -0.05456192 0.51028067
0.1716864 -0.050522301 0.51000005
0.03712583 -0.045451462 0.51900053
0.045001276 -0.045002714 0.51852953
0.050350975 -0.04490963 0.51742858
0.15940461 -0.047410429 0.5110001
0.16491877 -0.045090608 0.51047581
0.17406376 -0.044379972 0.51002115
0.18018131 -0.041133203 0.51000005
0.038934145 -0.038804147 0.51900005
0.045987926 -0.036131177 0.51880288
0.050479565 -0.032061238 0.51875007
0.1650801 -0.036412068 0.51132411
0.17346016 -0.035990678 0.51024312
0.047856677 -0.028002571 0.51900005
0.17660451 -0.0299557 0.51000005
0.18696654 -0.02523917 0.51021439
0.19086319 -0.024621477 0.51066667
-0.24344736 -0.012219449 0.51802313
-0.23463246 -0.012568111 0.51583022
-0.19432025 -0.013731874 0.51219529
-0.1851602 -0.014305613 0.51130879
-0.17514889 -0.014766665 0.51068193
-0.16697255 -0.017615005 0.51028132
-0.24405749 -0.0050215684 0.51802033
-0.23484464 -0.0049287234 0.51734251
-0.22496489 -0.0049492461 0.51604426
-0.21509632 -0.0050780089 0.51483595
-0.20485373 -0.0052770101 0.51322353
-0.19535561 -0.005665428 0.51257634
-0.18616891 -0.0083044246 0.51163638
-0.17611387 -0.0072466508 0.51079583
-0.16124593 -0.0027498528 0.51071435
-0.15824923 -0.0031349598 0.5108
-0.24338496 0.0013623034 0.51795828
-0.23492178 0.0012345659 0.51875007
-0.13401067 0.039502501 0.51011115
-0.11758731 0.0335325 0.51000005
-0.088251404 0.039869927 0.51100004
-0.1351219 0.044510428 0.51105428
-0.12822829 0.045335945 0.51000011
-0.11522989 0.045644853 0.51000011
0.014947706 -0.092362061 0.52074474
0.02240088 -0.091640942 0.52006668
-0.0050380216 -0.084702536 0.52226406
0.0050926842 -0.08477062 0.52137071
0.015022614 -0.085370757 0.52065837
0.025528533 -0.085702941 0.52000004
-0.0050360658 -0.074622169 0.52221441
0.015061388 -0.075310931 0.52065295
0.024978537 -0.075185955 0.52022839
0.030948285 -0.076940157 0.52000004
0.015071641 -0.065311179 0.52097517
0.023940515 -0.06535019 0.52018505
0.031910665 -0.061997868 0.52000004
-0.0051644724 -0.054777768 0.52318913
0.015071987 -0.055265397 0.52099168
0.024978276 -0.055119645 0.52049166
0.032553025 -0.054413918 0.52000028
-0.0049238708 -0.045133915 0.52279091
0.025081113 -0.045147013 0.52019864
0.032501604 -0.04462428 0.52000034
0.025092494 -0.035132159 0.5204547
0.034875397 -0.034882706 0.52020204
0.042978093 -0.032518484 0.52000022
0.050747164 -0.036116473 0.52149999
0.035309501 -0.028372861 0.52080947
0.043734115 -0.028230291 0.52015173
-0.24983862 -0.011418584 0.52100003
-0.2517305 -0.0041862712 0.52221429
-0.24947089 -0.0037007025 0.52044445
-0.11484532 -0.085171945 0.53604341
-0.10503707 -0.084871925 0.53487265
-0.095002733 -0.08470498 0.53382677
-0.084835671 -0.085013248 0.5319348
-0.074928105 -0.085165694 0.5308587
-0.11488707 -0.074969023 0.53656554
-0.064941689 -0.074704438 0.53078878
-0.0647268 -0.06472636 0.53117287
-0.12306196 -0.055076521 0.53886753
-0.11509086 -0.055186044 0.53802693
-0.064728163 -0.054948673 0.5311814
-0.12280447 -0.045072902 0.53890604
-0.11519855 -0.044850092 0.53853661
-0.064842775 -0.045251425 0.53213274
-0.12264131 -0.035095606 0.53899968
-0.11526056 -0.034955457 0.53883034
-0.12214728 -0.028351396 0.53900003
-0.11469941 -0.025145141 0.53887773
-0.10493796 -0.025107956 0.53780121
-0.064961463 -0.02464954 0.53209335
-0.10486439 -0.015114916 0.53881025
-0.074886352 -0.014977677 0.53388041
-0.064966671 -0.014954566 0.53312784
-0.095140405 -0.0051407362 0.53750384
-0.084876493 -0.0051994161 0.53512484
-0.074902803 -0.0051487614 0.53400034
-0.065292269 -0.0054373504 0.53369951
-0.095543057 0.00068568817 0.53523076
-0.12576659 -0.040554602 0.54000002
-0.125451 -0.039292201 0.54000002
-0.12386634 -0.025140747 0.54051435
-0.11958085 -0.023575319 0.54000002
-0.24754384 -0.017336084 0.54620004
-0.26473901 -0.075116768 0.55300057
-0.24407436 -0.075177312 0.55336434
-0.23963772 -0.072528385 0.55900002
-0.2442711 -0.065377809 0.55206692
-0.23958682 -0.063493788 0.55543482
-0.24458808 -0.054969952 0.5526008
-0.23945339 -0.055546947 0.55624318
-0.2447388 -0.045093812 0.55290747
-0.2395253 -0.045004588 0.55661291
-0.2446624 -0.034986682 0.55361438
-0.23922883 -0.034914844 0.55606258
-0.2649419 -0.025155935 0.55604202
-0.25477508 -0.025330171 0.55355489
-0.24490832 -0.025147779 0.55341876
-0.23914161 -0.025432128 0.5561614
-0.26599324 -0.01638972 0.55427295
-0.25513813 -0.018939691 0.5529657
-0.24554732 -0.019469012 0.55366665
-0.24087584 -0.082704015 0.56420696
-0.24055184 -0.078462325 0.56199998
-0.239126 -0.072956406 0.56467748
-0.24023724 -0.065211982 0.56171429
