# .PCD v0.7 - Point Cloud Data file format
VERSION 0.7
FIELDS x y z
SIZE 4 4 4
TYPE F F F
COUNT 1 1 1
WIDTH 558
HEIGHT 1
VIEWPOINT 0 0 0 1 0 0 0
POINTS 558
DATA ascii
0.31872183 -0.17898992 0.75900006
0.32550877 -0.17357808 0.75900012
0.33107907 -0.17309645 0.75900012
0.327959 -0.16693461 0.75899994
0.33183005 -0.16435133 0.75899994
0.32319108 -0.15064552 0.75700003
0.33229578 -0.1584959 0.75900006
0.31872183 -0.14971276 0.75900006
0.32053649 -0.14931825 0.75700003
0.31793928 -0.19108108 0.76480007
0.32415408 -0.19147478 0.76676911
0.31577674 -0.18424329 0.76400018
0.32517016 -0.1847786 0.76197833
0.33218843 -0.18512015 0.76139992
0.31487003 -0.1747651 0.76340312
0.32420865 -0.17605685 0.76099986
0.3332381 -0.17620924 0.76099998
0.31548992 -0.1647795 0.76408595
0.32411969 -0.164193 0.76113933
0.33237079 -0.16558497 0.76100004
0.31618014 -0.15534322 0.76595747
0.32461521 -0.15568775 0.76194125
0.33213475 -0.15416142 0.76099992
0.30851245 -0.19074571 0.77800006
0.3140676 -0.19265917 0.7734285
0.32574657 -0.1958725 0.77309096
0.30764177 -0.18474826 0.77578372
0.31192359 -0.18595006 0.7718181
0.17460394 -0.17119372 0.77800006
0.30766582 -0.17493895 0.77525008
0.31064823 -0.17546622 0.77099997
0.30731598 -0.16502476 0.77482057
0.31103784 -0.16464372 0.77099997
0.30765006 -0.15694202 0.77469558
0.31149051 -0.15655115 0.77099997
0.30757323 -0.19187428 0.78000003
0.14835218 -0.1811658 0.78800005
0.15551488 -0.18259189 0.78657895
0.16503517 -0.18240218 0.78539127
0.17523125 -0.1826635 0.78460002
0.18447784 -0.18350877 0.7843551
0.30419329 -0.18384452 0.78000003
0.098325767 -0.17109144 0.78800005
0.10461983 -0.17224282 0.78800005
0.11547764 -0.17314979 0.78763998
0.12504357 -0.17400804 0.78659999
0.13479398 -0.17472863 0.78599995
0.14494887 -0.17519245 0.78621721
0.15510243 -0.17503095 0.78329134
0.16504627 -0.17483859 0.78172028
0.17512639 -0.17454632 0.78033334
0.18476117 -0.17463729 0.7806282
0.19387588 -0.17463495 0.78490019
0.20163772 -0.17411038 0.78500003
0.30425319 -0.17495848 0.78137511
0.10154956 -0.16924927 0.78800005
0.11649478 -0.16600753 0.7872895
0.12469345 -0.16522242 0.78522795
0.13466901 -0.16542354 0.78431052
0.16512859 -0.16513062 0.78159213
0.17507447 -0.16510667 0.78088909
0.18470088 -0.1648985 0.78122765
0.19379118 -0.16549024 0.78621054
0.20386972 -0.16542964 0.78300005
0.30470532 -0.1639917 0.78236842
0.097404681 -0.15163353 0.78800005
0.10391806 -0.15168288 0.78800005
0.11582637 -0.15635408 0.78800005
0.12608276 -0.15595576 0.78800005
0.13498744 -0.15521838 0.78463942
0.19333266 -0.1552017 0.7854287
0.20370227 -0.15277669 0.78500003
0.30385354 -0.15898088 0.78100002
0.096238956 -0.14610703 0.78800005
0.10392597 -0.14523657 0.78799975
0.11315522 -0.14659059 0.78800005
0.12689412 -0.14633515 0.78777784
0.13477975 -0.14501128 0.78496557
0.19260609 -0.14556772 0.78474087
0.11674745 -0.13169415 0.78800005
0.12089234 -0.13056372 0.78800005
0.13578546 -0.13457286 0.7853334
0.18445499 -0.13499311 0.78181273
0.19284624 -0.13462873 0.78486675
0.11746828 -0.1254577 0.78800005
0.12470023 -0.12432952 0.78800005
0.1353016 -0.12496968 0.78696454
0.15492746 -0.12530142 0.78446573
0.19383733 -0.12502554 0.78523827
0.11785275 -0.11895804 0.78800005
0.12561557 -0.11546221 0.78799999
0.13506562 -0.11536273 0.78711081
0.14505462 -0.11484158 0.78535283
0.15492275 -0.11488556 0.78570205
0.18462883 -0.1146617 0.78217065
0.19327816 -0.11486446 0.78457165
0.078061908 -0.10154956 0.78800005
0.11881988 -0.10154956 0.78800005
0.12528521 -0.10477339 0.78800005
0.13446681 -0.10638531 0.78800005
0.14511465 -0.10531631 0.78696513
0.15521626 -0.10508049 0.78342909
0.19335091 -0.10507864 0.78455567
0.077913314 -0.097910076 0.78650004
0.12609375 -0.095169716 0.78800005
0.1334191 -0.091786064 0.78800005
0.14732487 -0.096956216 0.78757149
0.15540393 -0.095120154 0.78517735
0.19276924 -0.095125362 0.78503239
0.12768783 -0.085005768 0.7877143
0.13437207 -0.084761865 0.78604078
0.14508773 -0.084445499 0.78793722
0.15510459 -0.084793717 0.78634691
0.18470991 -0.085143901 0.78325051
0.19294471 -0.08497683 0.78631037
0.12616298 -0.076577947 0.78800005
0.13470487 -0.075366087 0.78781229
0.14506058 -0.075293429 0.78794593
0.15525198 -0.075209387 0.78708142
0.18467921 -0.074832998 0.78312296
0.19300108 -0.075132623 0.78625
0.13757816 -0.067434013 0.78800005
0.14464317 -0.065890454 0.78799999
0.15614152 -0.06626495 0.78800005
0.16521934 -0.065189138 0.78611833
0.18471742 -0.065233678 0.78328621
0.19310105 -0.064957954 0.78638709
0.14295523 -0.053883437 0.78800005
0.15894987 -0.054448653 0.78800005
0.16547483 -0.054866642 0.78568822
0.17537411 -0.055018421 0.78450006
0.1850047 -0.055021107 0.78450006
0.1930286 -0.054672047 0.78665519
0.13609023 -0.044902865 0.78800005
0.14513859 -0.046711516 0.78596431
0.15543297 -0.047666129 0.78799999
0.18424939 -0.048435662 0.78479993
0.19382611 -0.048973054 0.78680003
0.087447502 -0.1923845 0.79800004
0.12599891 -0.19074601 0.79699999
0.13621822 -0.19118522 0.79799998
0.14616428 -0.19223413 0.79615802
0.15497731 -0.19218105 0.79318762
0.16540584 -0.19275334 0.79375011
0.17442644 -0.19291049 0.79270369
0.18145245 -0.1911484 0.79000002
0.085838757 -0.18162738 0.79707688
0.09526246 -0.18197872 0.79531825
0.10477932 -0.1838485 0.79425806
0.11513853 -0.18420881 0.79499996
0.12465342 -0.18494502 0.79476076
0.13471726 -0.18482468 0.79275554
0.14461887 -0.18539886 0.7919026
0.15490104 -0.18756349 0.79077804
0.16558281 -0.18775395 0.79028577
0.17491154 -0.18791643 0.79000002
0.18237586 -0.18860899 0.79000002
0.039176483 -0.17279626 0.79800004
0.045303993 -0.17317869 0.79688907
0.055384133 -0.17335898 0.79580653
0.064816609 -0.17354459 0.79499996
0.075284921 -0.17414412 0.79484075
0.085064918 -0.17519063 0.79235566
0.094660811 -0.17487872 0.79053873
0.10488055 -0.17638813 0.79000032
0.11365019 -0.176743 0.79000002
0.12535456 -0.17868216 0.79000002
0.13158765 -0.17937475 0.79000002
0.20191738 -0.17308943 0.79039997
0.039409678 -0.16603366 0.79800004
0.045202348 -0.16498055 0.79609406
0.054955497 -0.16487238 0.79353034
0.064676516 -0.16482027 0.79328537
0.08522664 -0.16514218 0.79109097
0.094881631 -0.16552341 0.7900005
0.10463528 -0.16543688 0.7900005
0.11196494 -0.16440213 0.79000002
0.19853579 -0.1641383 0.79000002
0.20179631 -0.16595906 0.79027277
0.039876062 -0.15460718 0.79799998
0.045548018 -0.15464798 0.79655755
0.05499582 -0.15484622 0.79519963
0.064813234 -0.15541162 0.79495895
0.07505662 -0.15532869 0.79466629
0.085344568 -0.1551137 0.79274982
0.0944985 -0.15591592 0.7900005
0.10473862 -0.15631065 0.7900005
0.11490928 -0.15505551 0.79000062
0.12208961 -0.15365085 0.79000002
0.19861272 -0.15475017 0.79000002
0.2021226 -0.15450758 0.79120016
0.0351406 -0.14683962 0.79633337
0.045795582 -0.14836477 0.79800004
0.076278567 -0.14607424 0.79394591
0.085099772 -0.14511591 0.79125488
0.092866898 -0.14348723 0.79000002
0.10833722 -0.14355917 0.79000002
0.11531939 -0.14449202 0.7900005
0.12371291 -0.14377172 0.7900002
0.13089509 -0.14059104 0.79000002
0.19770743 -0.14425756 0.79000002
0.20343183 -0.14504455 0.79229409
0.085412495 -0.13471578 0.79212493
0.094990812 -0.1345084 0.79091084
0.10450093 -0.13478234 0.79063481
0.11445816 -0.13578925 0.7900005
0.12544112 -0.1351371 0.7900005
0.1315107 -0.13674343 0.79000002
0.19802079 -0.13590288 0.79000002
0.078889079 -0.12456107 0.7926001
0.085414313 -0.12454936 0.79315966
0.10481746 -0.12483745 0.79181385
0.11303961 -0.12509008 0.79018211
0.12708598 -0.12899055 0.79000002
0.19876663 -0.12189173 0.79000002
0.079368286 -0.11528679 0.79300016
0.085509203 -0.11470744 0.79299968
0.1045848 -0.11488604 0.7900551
0.11473186 -0.11463787 0.79025471
0.12119915 -0.1142735 0.79000002
0.19876662 -0.11496606 0.79000002
0.079103827 -0.10478403 0.79150003
0.084858134 -0.10485748 0.79344606
0.11481215 -0.1046802 0.79000056
0.12500829 -0.10552984 0.79000002
0.13565651 -0.10180731 0.79000002
0.14169914 -0.10097621 0.79000002
0.19876662 -0.10457758 0.79000002
0.20404246 -0.10494006 0.79197556
0.079947621 -0.093851551 0.79300004
0.085414521 -0.095317505 0.79315966
0.095083013 -0.095087528 0.79171431
0.11496605 -0.094881639 0.79000056
0.12295365 -0.093681186 0.79000002
0.13562086 -0.096144527 0.79000038
0.14385019 -0.09378165 0.79000038
0.15028697 -0.091418803 0.79000002
0.19812799 -0.094908118 0.79021436
0.20526785 -0.095279507 0.79404122
0.079947621 -0.087594777 0.79300004
0.085157111 -0.084936328 0.79359609
0.11496604 -0.085185684 0.79000056
0.12332632 -0.085136212 0.79000026
0.14526585 -0.088302247 0.79000002
0.19807407 -0.085185699 0.79000002
0.2050139 -0.085530609 0.79374462
0.21057358 -0.083250016 0.79800004
0.079947621 -0.077514425 0.79300004
0.085725822 -0.074792102 0.79476893
0.11496805 -0.075268455 0.79091561
0.12380855 -0.073815294 0.79013056
0.13366537 -0.071334369 0.79000002
0.19807407 -0.075489759 0.79000002
0.20506032 -0.07487087 0.79352927
0.21057358 -0.079052538 0.79800004
0.12535456 -0.065101281 0.79000056
0.13418077 -0.064344287 0.7900005
0.14562126 -0.063533872 0.79000002
0.15361129 -0.06198471 0.79000002
0.19816843 -0.065130852 0.79037505
0.2052512 -0.064840615 0.79395974
0.095393129 -0.055009048 0.79426515
0.10512924 -0.055002216 0.79418331
0.11519514 -0.054822646 0.7916072
0.12535456 -0.054712784 0.7900005
0.13505051 -0.054712776 0.7900005
0.14743523 -0.056016419 0.79000002
0.15410377 -0.054743562 0.7900005
0.19807407 -0.054712769 0.79000002
0.20527111 -0.054969285 0.79554552
0.1254469 -0.048341151 0.79000002
0.13507441 -0.047795489 0.79014289
0.14059104 -0.048479665 0.79000002
0.054542691 -0.19054523 0.80800003
0.0655986 -0.19146973 0.80730766
0.075072482 -0.19164267 0.80533344
0.086802274 -0.19168824 0.80355561
0.09444759 -0.19210568 0.80333352
0.10184588 -0.19090959 0.80120003
0.12203199 -0.19146401 0.80000001
0.13605866 -0.19286665 0.80000001
0.035665605 -0.18336084 0.80408013
0.04479152 -0.18457247 0.8041777
0.055194948 -0.1847228 0.80393201
0.065549508 -0.18490215 0.8032608
0.075072661 -0.18507726 0.80191481
0.084592327 -0.18650927 0.80099988
0.094583638 -0.18732119 0.80081826
0.10134266 -0.18830799 0.80000001
0.027608534 -0.17252524 0.80737507
0.034473691 -0.17536539 0.80268759
0.045773692 -0.17799838 0.80000013
0.054640237 -0.17832996 0.80000013
0.065223999 -0.17884001 0.80000007
0.072237335 -0.17884 0.80000001
0.019125359 -0.16150305 0.80800003
0.027851043 -0.16601999 0.80758327
0.034125276 -0.16475885 0.80221266
0.029042214 -0.15512791 0.80800003
0.034475666 -0.15511727 0.80271429
0.028263295 -0.14838636 0.80600005
0.034910154 -0.14860821 0.80186683
0.041378666 -0.14798133 0.80000001
0.056702804 -0.19291227 0.8120001
0.061030611 -0.19354872 0.81266671
0.025830425 -0.17493805 0.81027293
0.023750594 -0.16503528 0.81099987
0.024841592 -0.15632416 0.81121868
-0.1016508 -0.1464704 0.81799996
-0.09853138 -0.14629111 0.81799996
0.026273701 -0.14983112 0.81000006
-0.11119377 -0.191137 0.82900006
-0.1004099 -0.19576319 0.82400006
-0.099205352 -0.19623832 0.82600003
-0.13008945 -0.18096241 0.82900006
-0.1238542 -0.18146291 0.82833338
-0.11590815 -0.18265975 0.82762522
-0.10529865 -0.18297999 0.82760012
-0.094603226 -0.18361455 0.82783902
-0.087549813 -0.18207201 0.82810003
-0.16061322 -0.17296809 0.82900006
-0.15479918 -0.17178711 0.82900023
-0.14407086 -0.17265658 0.82900029
-0.1344943 -0.1746196 0.82778597
-0.12508957 -0.17443822 0.82563651
-0.11461253 -0.17471267 0.82295322
-0.094796292 -0.17505461 0.82404542
-0.085900821 -0.17461911 0.8280772
-0.16642728 -0.16497377 0.82900006
-0.15358138 -0.16477737 0.82900035
-0.14494035 -0.16450593 0.82664299
-0.13550287 -0.1647809 0.82554555
-0.085719213 -0.16474056 0.82692516
-0.16416627 -0.15479918 0.82900023
-0.1559367 -0.15587351 0.82900029
-0.14432576 -0.15492459 0.82832527
-0.13496538 -0.15531294 0.82536978
-0.12497059 -0.15531027 0.82400012
-0.114674 -0.15505703 0.822653
-0.10442276 -0.15483482 0.82099956
-0.094415791 -0.15496452 0.82216305
-0.086937249 -0.15593801 0.82768208
-0.16315687 -0.14753161 0.82900006
-0.15666014 -0.1470636 0.8276155
-0.14462459 -0.14805074 0.82900017
-0.10631032 -0.14695466 0.82100004
-0.093210392 -0.14625776 0.82242841
-0.087571554 -0.14503887 0.82819259
-0.14301123 -0.19125302 0.83800012
-0.13346671 -0.19323489 0.83650011
-0.1251941 -0.19301887 0.83511996
-0.11375763 -0.19127853 0.8341428
-0.10415041 -0.192911 0.83605015
-0.09699019 -0.19150361 0.8344
-0.18439631 -0.18145773 0.83800006
-0.17190732 -0.18145773 0.83800006
-0.1644143 -0.18237694 0.83631259
-0.15444098 -0.1831602 0.8352142
-0.14488207 -0.18441387 0.83500004
-0.13554586 -0.18542708 0.83390886
-0.12547696 -0.1864665 0.8323105
-0.11404952 -0.18773335 0.83216649
-0.1049469 -0.18761832 0.83235282
-0.097633608 -0.18849434 0.8319999
-0.088574015 -0.18520021 0.83500004
-0.21084359 -0.17117268 0.83800006
-0.20408484 -0.17161348 0.83800018
-0.19372083 -0.17404665 0.83739996
-0.18504649 -0.17498392 0.8360666
-0.17567146 -0.1754286 0.83542842
-0.16588098 -0.17512427 0.83233345
-0.15535936 -0.17667986 0.83200008
-0.14595027 -0.17709507 0.8319999
-0.13931285 -0.17869973 0.83200002
-0.081545427 -0.17519867 0.83199996
-0.078687549 -0.17288677 0.83366656
-0.21215823 -0.16529553 0.83800024
-0.20522901 -0.16491796 0.83607113
-0.19559154 -0.16482632 0.835612
-0.17542823 -0.16504878 0.83368266
-0.16554041 -0.16557078 0.83200032
-0.15912786 -0.16617858 0.83199984
-0.081286095 -0.16476034 0.8319999
-0.078295015 -0.16457789 0.83542871
-0.2120536 -0.15440546 0.83800024
-0.20486067 -0.15492953 0.8375715
-0.19526777 -0.15489073 0.83735704
-0.18526062 -0.15486719 0.83452231
-0.17488447 -0.15502276 0.83200026
-0.16604136 -0.15535937 0.8320002
-0.15434943 -0.15440553 0.83200008
-0.14855175 -0.15219867 0.83199996
-0.083101101 -0.15433379 0.83288902
-0.07922668 -0.15532278 0.83609098
-0.21217932 -0.14686257 0.83800024
-0.2050263 -0.14578357 0.8379187
-0.19616958 -0.14661637 0.83620012
-0.18416166 -0.14742465 0.83249998
-0.17593132 -0.14780062 0.83233321
-0.1654796 -0.14724493 0.83199984
-0.15308397 -0.14942652 0.83350003
-0.082744375 -0.14500473 0.83366674
-0.078867018 -0.14489645 0.83687508
-0.082326181 -0.13520671 0.83403999
-0.078317985 -0.13815837 0.83650005
-0.1627928 -0.19240972 0.8448
-0.15438625 -0.19172753 0.84180003
-0.14595817 -0.19261542 0.84180003
-0.10456879 -0.196987 0.84000003
-0.096468404 -0.19367321 0.84000003
-0.25305861 -0.18086247 0.84900004
-0.23309691 -0.18103237 0.8484
-0.22510298 -0.18201528 0.84742862
-0.21520601 -0.18365692 0.8476156
-0.20472671 -0.18443909 0.84490943
-0.19503741 -0.18531695 0.84470302
-0.18466379 -0.18502206 0.84175879
-0.17513441 -0.18546699 0.84159398
-0.16512994 -0.18785709 0.84165013
-0.15599036 -0.18828715 0.84023088
-0.14948919 -0.18925479 0.84000003
-0.25351882 -0.17485268 0.84872741
-0.24515551 -0.17421162 0.84628153
-0.22521548 -0.17445858 0.84321451
-0.2151711 -0.17482397 0.84200019
-0.20558283 -0.17639254 0.84113812
-0.19720794 -0.17717786 0.84000009
-0.25294766 -0.16516186 0.84768748
-0.24504969 -0.16509195 0.84446955
-0.2253426 -0.16482911 0.84217024
-0.21708298 -0.16475981 0.84000009
-0.25252125 -0.15491711 0.84738457
-0.24479948 -0.15457001 0.84361219
-0.22523472 -0.15470411 0.84257996
-0.21670778 -0.1557928 0.84000009
-0.076848999 -0.15318984 0.84230781
-0.25278595 -0.14566912 0.84850007
-0.2451492 -0.14469771 0.84413344
-0.22494304 -0.14502087 0.84292519
-0.2159089 -0.14434306 0.84019363
-0.2084012 -0.1421252 0.83999997
-0.076392233 -0.14544967 0.84173697
-0.26422295 -0.1347165 0.84900004
-0.25157002 -0.13560964 0.8490001
-0.24450541 -0.13520913 0.84478587
-0.21723799 -0.1391796 0.83999997
-0.25205958 -0.12438585 0.84814292
-0.24504426 -0.12505168 0.84510666
-0.25261247 -0.11606285 0.8481819
-0.25198352 -0.10444869 0.84900004
-0.2450805 -0.10457202 0.84523433
-0.23501158 -0.10494227 0.84300029
-0.25132191 -0.094690226 0.84900004
-0.24496089 -0.094884373 0.84592134
-0.23499195 -0.055422176 0.84292865
-0.2751027 -0.045598939 0.84536856
-0.23503181 -0.045084406 0.84307152
-0.22652268 -0.045400415 0.84300029
-0.23547816 -0.039015677 0.84428567
-0.22961478 -0.038724121 0.84400004
-0.24460892 -0.19090328 0.85799992
-0.23521209 -0.19184434 0.85649991
-0.22486502 -0.1926343 0.85499984
-0.25170416 -0.18252699 0.85366678
-0.24500783 -0.18435332 0.85507661
-0.23522697 -0.18637416 0.85430753
-0.22467749 -0.18746881 0.85230005
-0.21705493 -0.18867198 0.85200006
-0.26178846 -0.17144269 0.85400009
-0.25818536 -0.17328544 0.85200006
-0.26278007 -0.16403235 0.85514271
-0.25768739 -0.16524509 0.85200018
-0.40813288 -0.15178993 0.85799998
-0.26321849 -0.15543348 0.85624117
-0.2570053 -0.15465097 0.85221446
-0.40753111 -0.14938295 0.85799998
-0.26257634 -0.14526658 0.85643983
-0.25693348 -0.14428881 0.85280013
-0.26180792 -0.13597868 0.85774994
-0.25664181 -0.1347795 0.85434783
-0.26190907 -0.12471144 0.85799998
-0.25697234 -0.12554568 0.85484213
-0.26100647 -0.11533425 0.85799998
-0.25734726 -0.1141797 0.85499996
-0.26160049 -0.10610506 0.85687506
-0.25685009 -0.10509571 0.85447061
-0.26208127 -0.093661316 0.85700005
-0.25616091 -0.094616227 0.85374999
-0.26138258 -0.088381156 0.85800004
-0.25579169 -0.085034743 0.85563618
-0.27420747 -0.054539911 0.8561666
-0.27380639 -0.046690628 0.85527283
-0.41367006 -0.18055212 0.86900008
-0.40639043 -0.18122929 0.86900002
-0.44170517 -0.17262916 0.86900008
-0.43495682 -0.17383133 0.8675555
-0.42521295 -0.1739189 0.86682749
-0.41555685 -0.17427117 0.86599976
-0.40442303 -0.17474125 0.86504859
-0.39774179 -0.17390408 0.86847073
-0.4502376 -0.16607748 0.86900002
-0.44507685 -0.16477498 0.8689999
-0.43511361 -0.16445297 0.8657673
-0.39638802 -0.16469856 0.86841649
-0.44429532 -0.15480253 0.8689999
-0.4152998 -0.15513483 0.86268765
-0.40433362 -0.15537344 0.86259609
-0.39530391 -0.15474194 0.86747617
-0.44317338 -0.14502345 0.86900008
-0.41543901 -0.14453538 0.86392123
-0.40434423 -0.14486292 0.86268634
-0.39515936 -0.14514022 0.86638635
-0.26644793 -0.14467192 0.86100006
-0.26496637 -0.13455826 0.86150008
-0.26395816 -0.12447644 0.86118758
-0.26523387 -0.11442617 0.86250007
-0.26443511 -0.10768622 0.86100006
-0.27201146 -0.064434543 0.86684227
-0.26539928 -0.06472747 0.86470962
-0.27229318 -0.055264976 0.86603445
-0.26511616 -0.055336259 0.86679399
-0.25889984 -0.054849524 0.86100006
-0.27233663 -0.048736535 0.8667143
-0.26608178 -0.049461532 0.86800003
-0.45079514 -0.18108866 0.87900007
-0.44437057 -0.18351273 0.87808692
-0.43526605 -0.18355216 0.87795657
-0.41251287 -0.18291387 0.87300003
-0.40378562 -0.18209945 0.87400007
-0.39848313 -0.18077964 0.87750006
-0.46171731 -0.1739762 0.87845463
-0.45439976 -0.17484735 0.87680763
-0.4464179 -0.17509079 0.87405002
-0.43697366 -0.17975086 0.875
-0.42628878 -0.17954642 0.87300003
-0.40103292 -0.17985255 0.87300003
-0.39495933 -0.17451094 0.87693089
-0.45526534 -0.16528539 0.87431991
-0.39202482 -0.16553691 0.87535697
-0.38892779 -0.16479619 0.87900013
-0.4548665 -0.15485585 0.87346131
-0.44924867 -0.15230067 0.87299997
-0.3912333 -0.15523449 0.87539983
-0.38914794 -0.15373272 0.87900007
-0.44878954 -0.14372899 0.87300003
-0.39112836 -0.14828005 0.8752501
-0.38806772 -0.14435507 0.8768
-0.46241939 -0.18467835 0.88277787
-0.45520598 -0.18450408 0.88242859
-0.39618027 -0.18160209 0.88400006
-0.46238554 -0.17861381 0.88200003
-0.3923218 -0.17603429 0.88411766
-0.38865089 -0.17220083 0.88560009
-0.38733086 -0.16465527 0.88344002
-0.39047608 -0.15696366 0.88200003
-0.3870782 -0.154677 0.88448286
-0.38663846 -0.14657632 0.88406259
-0.39167538 -0.17801417 0.89228576
